5.67190409 4.66370010 1.65806603 128 128 128
5.72237015 4.65463686 1.66438198 128 128 128
5.78257322 4.65709114 1.65855598 128 128 128
5.82353401 4.68946505 1.65256298 128 128 128
5.86381197 4.68522596 1.65931106 128 128 128
5.91941023 4.66585398 1.65080905 128 128 128
5.99179792 4.69054890 1.66334403 128 128 128
6.02210808 4.67863178 1.67102695 128 128 128
6.06796980 4.67555904 1.62780499 128 128 128
6.12749577 4.68073893 1.61314595 128 128 128
6.17463207 4.67490101 1.61964500 128 128 128
6.22885799 4.66736507 1.63783097 128 128 128
6.27716303 4.67628098 1.64279902 128 128 128
6.32703018 4.67434406 1.64156997 128 128 128
6.39104795 4.68807220 1.65199494 128 128 128
2.96274590 1.31355405 1.72597098 128 128 128
3.08066607 1.31857502 1.71541500 128 128 128
3.12973809 1.30802298 1.72578597 128 128 128
3.16621494 1.32835698 1.72747195 128 128 128
5.69010305 1.29819405 1.72816002 128 128 128
6.37198400 1.31199503 1.68849099 128 128 128
6.47261715 1.31473696 1.68876505 128 128 128
6.57821321 1.31343496 1.69326401 128 128 128
6.62444687 1.32616496 1.69650495 128 128 128
6.66756392 1.32379699 1.69633496 128 128 128
6.72261906 1.32827699 1.69763899 128 128 128
6.78739500 1.31971097 1.69483995 128 128 128
6.82676697 1.32862103 1.74925303 128 128 128
7.23568201 1.30949199 1.70885098 128 128 128
7.26985312 1.33633804 1.69292998 128 128 128
7.27009678 1.31081700 1.71359503 128 128 128
6.36097002 1.41444194 1.71726704 128 128 128
7.27273798 1.38744199 1.70421100 128 128 128
7.28896189 1.37127697 1.74199998 128 128 128
7.34874296 1.38988900 1.76284099 128 128 128
7.43931389 1.37080204 1.76983202 128 128 128
6.39240789 1.44454098 1.72556400 128 128 128
7.26966381 1.43128204 1.71281505 128 128 128
7.27075815 1.42659497 1.72027504 128 128 128
7.38009405 1.42332995 1.72988200 128 128 128
7.43914318 1.43948495 1.75345504 128 128 128
5.72271490 1.47831500 1.72342098 128 128 128
6.37659788 1.48128796 1.73420095 128 128 128
7.43813896 1.48425400 1.73279905 128 128 128
6.38704681 1.49470305 1.73578298 128 128 128
7.43766308 1.52192497 1.72967803 128 128 128
6.39591312 1.57046497 1.75373995 128 128 128
7.43732023 1.57290006 1.73413396 128 128 128
6.37101221 1.61967397 1.76532304 128 128 128
7.43939590 1.62985504 1.73081100 128 128 128
6.36648321 1.68364704 1.78072500 128 128 128
7.43716097 1.68078399 1.73582304 128 128 128
6.38035393 1.74887705 1.79637694 128 128 128
7.43547297 1.72775495 1.73142600 128 128 128
6.36770296 1.77209198 1.76087797 128 128 128
7.43506718 1.77597594 1.73355806 128 128 128
2.17246509 1.82836103 1.72753596 128 128 128
2.22076106 1.82373703 1.72630894 128 128 128
2.27477098 1.82653105 1.72900903 128 128 128
2.32577896 1.82882404 1.72789705 128 128 128
2.36823702 1.82857800 1.72474098 128 128 128
2.42472100 1.83611000 1.72206903 128 128 128
2.48672199 1.84033704 1.72283494 128 128 128
2.53935003 1.84162498 1.71861696 128 128 128
2.58112693 1.84119105 1.72220004 128 128 128
2.62300491 1.83937800 1.72722006 128 128 128
2.67285895 1.83810699 1.72680402 128 128 128
2.72353697 1.84000897 1.72374701 128 128 128
2.77539492 1.83964396 1.72522402 128 128 128
2.82509494 1.83844697 1.72287905 128 128 128
2.87938404 1.83593798 1.72452796 128 128 128
2.92408705 1.82866800 1.72348499 128 128 128
6.35834885 1.81063104 1.76707006 128 128 128
7.43843603 1.82371604 1.73377800 128 128 128
2.05460596 1.87684500 1.72652602 128 128 128
2.07937407 1.86249399 1.72635996 128 128 128
2.12372303 1.85308397 1.72645795 128 128 128
2.17495704 1.85079002 1.72230899 128 128 128
5.70799303 1.86845601 1.72400296 128 128 128
6.20780993 1.84533799 1.73224294 128 128 128
6.24502802 1.86728406 1.74949706 128 128 128
6.29729700 1.86215901 1.76522803 128 128 128
6.34175205 1.84753704 1.78877997 128 128 128
7.43855095 1.88143504 1.72688603 128 128 128
1.99406803 1.95947397 1.72414100 128 128 128
2.04054809 1.93258202 1.72197104 128 128 128
7.43657398 1.93393004 1.72502303 128 128 128
7.43341589 1.97603095 1.72136700 128 128 128
1.35691500 1.99844098 1.72567999 128 128 128
7.43944883 2.02245498 1.72637200 128 128 128
1.34019399 2.08501697 1.72495997 128 128 128
5.73771095 2.05056810 1.72684097 128 128 128
5.76084900 2.08408308 1.71139300 128 128 128
7.44136906 2.07151198 1.72689295 128 128 128
5.76738024 2.12140203 1.72246099 128 128 128
5.79521799 2.12742996 1.75376296 128 128 128
5.86852884 2.12589002 1.78415895 128 128 128
5.92562914 2.12088799 1.79162705 128 128 128
5.97926998 2.12055206 1.79390395 128 128 128
6.02760220 2.12479591 1.79356599 128 128 128
6.07742596 2.12673092 1.79439795 128 128 128
6.10787487 2.10540104 1.79600704 128 128 128
7.44239378 2.12701297 1.72631705 128 128 128
1.30271399 2.15976810 1.72888505 128 128 128
7.44153786 2.17927194 1.72531605 128 128 128
1.29499197 2.22343302 1.72795796 128 128 128
7.44125319 2.22441196 1.72292495 128 128 128
1.29692602 2.25020409 1.72236598 128 128 128
7.44250679 2.27412295 1.72696602 128 128 128
1.30934799 2.26221108 1.72596705 128 128 128
7.44372320 2.32500410 1.72297502 128 128 128
7.44421577 2.37562990 1.72539997 128 128 128
7.44443512 2.42696810 1.72159505 128 128 128
7.44236898 2.47834706 1.71999598 128 128 128
7.43964005 2.52481198 1.72396696 128 128 128
7.43957996 2.56911206 1.72193801 128 128 128
7.44566917 2.62232804 1.72379196 128 128 128
7.44709396 2.67184305 1.72532201 128 128 128
7.44745111 2.71119905 1.72271299 128 128 128
7.44980001 2.76537800 1.72565198 128 128 128
1.31071806 2.88361406 1.72712004 128 128 128
7.45055485 2.81890798 1.72662604 128 128 128
1.29437006 2.88972902 1.73345900 128 128 128
7.45097923 2.87092590 1.72702706 128 128 128
1.30015004 2.92715693 1.73047495 128 128 128
7.45136023 2.92672610 1.72830999 128 128 128
1.30886698 2.98418808 1.72836101 128 128 128
7.45188999 2.97375488 1.72092295 128 128 128
7.45289421 3.02082205 1.72019804 128 128 128
7.45523024 3.07543397 1.71940899 128 128 128
7.45584011 3.12740898 1.72188699 128 128 128
7.45612097 3.17245698 1.72550595 128 128 128
1.35678899 3.23374295 1.72461295 128 128 128
7.45566797 3.21956110 1.72064602 128 128 128
1.35563803 3.25964594 1.72567403 128 128 128
7.45799494 3.27319407 1.72340596 128 128 128
7.45745087 3.32413912 1.72638297 128 128 128
7.45886898 3.37538099 1.72299898 128 128 128
7.45869923 3.42590904 1.72331595 128 128 128
7.45889378 3.47617412 1.72573698 128 128 128
7.46171618 3.52449894 1.72391796 128 128 128
7.46078014 3.57503295 1.72259295 128 128 128
7.46132421 3.62580609 1.72218597 128 128 128
7.46179199 3.67523503 1.72576702 128 128 128
7.46483517 3.72589803 1.72452998 128 128 128
7.46422100 3.77698302 1.72546399 128 128 128
7.46475077 3.82542706 1.72448802 128 128 128
7.46538115 3.87272906 1.72719502 128 128 128
7.46617889 3.92555809 1.72495198 128 128 128
7.46690893 3.97545791 1.72523296 128 128 128
7.46708298 4.02653599 1.72584295 128 128 128
7.46781111 4.07847404 1.72521698 128 128 128
7.46868277 4.12607479 1.72700703 128 128 128
7.46919918 4.17319202 1.72355604 128 128 128
7.46975088 4.22599697 1.72450101 128 128 128
1.39914405 4.27135181 1.72305000 128 128 128
1.47860396 4.27155304 1.72374403 128 128 128
1.53419304 4.25680017 1.72113299 128 128 128
1.58112001 4.25902224 1.72732699 128 128 128
1.62357700 4.25773621 1.72845495 128 128 128
1.67955196 4.25498676 1.72447705 128 128 128
1.72645605 4.25607491 1.72545397 128 128 128
1.77357101 4.25658178 1.71422195 128 128 128
1.82586098 4.25435781 1.72211897 128 128 128
1.87437701 4.25412178 1.72258496 128 128 128
1.92012298 4.25287580 1.72467399 128 128 128
1.97022605 4.25218678 1.71689999 128 128 128
2.02108502 4.25111914 1.71582198 128 128 128
2.12958097 4.25151396 1.71851206 128 128 128
2.17508602 4.25108385 1.72020197 128 128 128
2.21889210 4.25097799 1.72143805 128 128 128
2.27332211 4.25071621 1.71939301 128 128 128
2.32411599 4.25047588 1.72227299 128 128 128
2.37279010 4.25101519 1.72068501 128 128 128
2.42794394 4.25122976 1.72241402 128 128 128
2.47684693 4.25087023 1.72589898 128 128 128
2.52462697 4.25063419 1.72199798 128 128 128
2.57584500 4.25034809 1.72017705 128 128 128
2.61666393 4.25023794 1.72206497 128 128 128
2.68343711 4.25572300 1.72043598 128 128 128
7.47014189 4.27833605 1.72705805 128 128 128
2.70963192 4.31423187 1.72313702 128 128 128
7.47115278 4.32605410 1.72283196 128 128 128
2.71650910 4.37314415 1.72626102 128 128 128
7.44472790 4.41024685 1.72638094 128 128 128
2.71623492 4.42684507 1.72662103 128 128 128
7.42185593 4.43752289 1.72668302 128 128 128
2.71510506 4.47466803 1.72612202 128 128 128
7.31636715 4.47653294 1.72138202 128 128 128
2.71367192 4.52522707 1.72369802 128 128 128
2.71358800 4.57576180 1.72591996 128 128 128
2.70633101 4.63136911 1.73606205 128 128 128
2.69142389 4.68785381 1.74013603 128 128 128
4.67334890 4.71284199 1.72956705 128 128 128
4.87542105 4.69781590 1.72111201 128 128 128
5.02974987 4.68862200 1.71789098 128 128 128
5.07455492 4.66226196 1.72184205 128 128 128
5.12119722 4.64902401 1.72314501 128 128 128
5.17663717 4.66819000 1.71963704 128 128 128
5.22176790 4.65583801 1.72311902 128 128 128
5.29541206 4.66743088 1.73403895 128 128 128
5.32804394 4.70153809 1.72550702 128 128 128
5.42032290 4.70298815 1.73159504 128 128 128
5.47326183 4.64745522 1.75015402 128 128 128
5.53810596 4.65311193 1.72536397 128 128 128
5.58413219 4.66855288 1.72644305 128 128 128
5.61294985 4.68195581 1.73318601 128 128 128
5.66818619 4.67019415 1.72138798 128 128 128
5.71657991 4.66740799 1.72264802 128 128 128
5.87090588 4.69053411 1.74410105 128 128 128
5.90508223 4.67396116 1.73350894 128 128 128
5.98781776 4.68949699 1.74249804 128 128 128
6.02233505 4.68510389 1.73003602 128 128 128
6.02541924 4.69164801 1.72913396 128 128 128
6.20058298 4.64361000 1.70975995 128 128 128
6.22352695 4.67288923 1.73175800 128 128 128
6.81911278 1.31316805 1.81026304 128 128 128
6.87177992 1.27477002 1.84258604 128 128 128
6.93118095 1.29634702 1.82620895 128 128 128
6.97962904 1.26593900 1.83614099 128 128 128
7.03584194 1.26184905 1.84097397 128 128 128
7.06266785 1.25859702 1.84575295 128 128 128
7.12329912 1.25779295 1.82895601 128 128 128
7.18271399 1.26368201 1.77249002 128 128 128
7.23309278 1.28462803 1.79880905 128 128 128
2.96314812 1.31361198 1.77186704 128 128 128
3.01681805 1.30854797 1.77632499 128 128 128
3.07669711 1.31214702 1.78022003 128 128 128
3.12573695 1.31465697 1.77183795 128 128 128
3.16880894 1.33116198 1.77585196 128 128 128
5.69178295 1.30040205 1.77742004 128 128 128
6.37418509 1.32602406 1.83109903 128 128 128
6.42315483 1.32648206 1.83952999 128 128 128
6.47567987 1.33567500 1.82895398 128 128 128
6.52641487 1.33834004 1.83141196 128 128 128
6.57982016 1.33419001 1.82693994 128 128 128
6.62558985 1.32736695 1.82852197 128 128 128
6.67594719 1.32845294 1.82889700 128 128 128
6.72637701 1.33158505 1.82855797 128 128 128
6.78029823 1.33867002 1.82341802 128 128 128
6.82297087 1.34040797 1.82128501 128 128 128
7.22734690 1.32938099 1.80787396 128 128 128
7.27506495 1.32141101 1.81421399 128 128 128
7.32465506 1.32797098 1.81587899 128 128 128
7.40172386 1.32380998 1.80040395 128 128 128
7.42892694 1.32360399 1.79128098 128 128 128
6.37778997 1.37821400 1.82008004 128 128 128
7.32274294 1.37544203 1.81504405 128 128 128
7.38954115 1.37222695 1.80160201 128 128 128
7.43406916 1.37470698 1.78779399 128 128 128
6.37565994 1.42243803 1.81352794 128 128 128
7.43498898 1.42529595 1.78554499 128 128 128
6.37531281 1.47567201 1.80382705 128 128 128
7.43502092 1.47158206 1.77880704 128 128 128
6.37973404 1.53903699 1.80416000 128 128 128
7.43529081 1.52742898 1.78053999 128 128 128
6.37417698 1.58214402 1.80923498 128 128 128
7.43607187 1.57381296 1.78400397 128 128 128
6.37332392 1.62232602 1.80405903 128 128 128
7.43617296 1.62241006 1.78452694 128 128 128
6.36677885 1.66741002 1.79703796 128 128 128
7.43499899 1.67446804 1.78627503 128 128 128
6.36553812 1.71492505 1.79276299 128 128 128
7.43288898 1.72598696 1.78376496 128 128 128
6.37103701 1.76874304 1.81137097 128 128 128
7.43471813 1.77739096 1.78065503 128 128 128
2.17113304 1.82860303 1.77340901 128 128 128
2.21905804 1.82278895 1.77068603 128 128 128
2.27376890 1.82465100 1.77426505 128 128 128
2.32206702 1.82789505 1.77394903 128 128 128
2.36303806 1.83069503 1.77502298 128 128 128
2.42323399 1.83330703 1.77289104 128 128 128
2.47945905 1.84003198 1.77486598 128 128 128
2.53608203 1.84128904 1.77346301 128 128 128
2.58289409 1.83894002 1.77725995 128 128 128
2.62713599 1.83965802 1.77206004 128 128 128
2.67091608 1.83839703 1.77621806 128 128 128
2.72371507 1.84033298 1.77541697 128 128 128
2.77596998 1.84069395 1.77341402 128 128 128
2.82448912 1.83935499 1.77181304 128 128 128
2.87813091 1.83769596 1.77152395 128 128 128
2.92592907 1.82755101 1.77336895 128 128 128
5.75090694 1.81861401 1.78920496 128 128 128
7.43703318 1.82018602 1.77973294 128 128 128
2.05647206 1.87155604 1.77788901 128 128 128
2.07702899 1.86140096 1.77551401 128 128 128
2.12059498 1.85402799 1.77430904 128 128 128
2.17111993 1.85026205 1.77442205 128 128 128
5.75330400 1.86526597 1.79233098 128 128 128
6.15534306 1.88167799 1.80077600 128 128 128
6.20259523 1.90288198 1.79701400 128 128 128
6.24830103 1.88447702 1.81042695 128 128 128
7.43887091 1.87413704 1.77906001 128 128 128
1.99005306 1.96256995 1.77554202 128 128 128
2.04041505 1.92990398 1.77174699 128 128 128
5.76515293 1.91598797 1.80504799 128 128 128
6.15799809 1.93430197 1.79812002 128 128 128
7.43661213 1.93471599 1.77262497 128 128 128
5.76355600 1.96295595 1.81374705 128 128 128
6.17039013 1.98071206 1.79473698 128 128 128
7.43414307 1.97863805 1.77663302 128 128 128
1.35458302 2.00117302 1.77575099 128 128 128
5.76450682 2.02880096 1.80698299 128 128 128
6.17311478 2.02158999 1.79534495 128 128 128
7.43613005 2.02153993 1.78048897 128 128 128
1.32974696 2.07247305 1.77290797 128 128 128
1.33611405 2.07910109 1.77533805 128 128 128
5.74170399 2.05380297 1.79247105 128 128 128
5.78339911 2.08024406 1.77985001 128 128 128
5.83128309 2.08775496 1.79691100 128 128 128
5.87122202 2.07257891 1.79617000 128 128 128
6.11542797 2.06449890 1.80224502 128 128 128
6.17847490 2.07146692 1.79563296 128 128 128
7.43816090 2.07297611 1.77941000 128 128 128
5.78934288 2.12303901 1.77661097 128 128 128
5.82909107 2.12373304 1.79359305 128 128 128
5.87110090 2.12552691 1.79526806 128 128 128
5.92249489 2.12633896 1.79904401 128 128 128
5.97452307 2.12058997 1.80138397 128 128 128
6.02618122 2.11973596 1.80170202 128 128 128
6.06631088 2.11783910 1.80300701 128 128 128
6.11632299 2.11622000 1.80372906 128 128 128
6.18853903 2.12134409 1.79494500 128 128 128
7.44128799 2.12422204 1.78018200 128 128 128
1.30231404 2.16460896 1.77434301 128 128 128
7.44143486 2.17122102 1.77411497 128 128 128
1.29386997 2.22002101 1.77691996 128 128 128
7.44181299 2.22765303 1.77398396 128 128 128
1.29528499 2.25070691 1.77460897 128 128 128
7.44270992 2.27572107 1.77577901 128 128 128
1.30589497 2.26406193 1.77079296 128 128 128
7.44325399 2.32316089 1.77395904 128 128 128
7.44423294 2.37292790 1.77299905 128 128 128
7.44512987 2.42272401 1.77440202 128 128 128
7.44396400 2.47969294 1.77132106 128 128 128
7.44210196 2.53053188 1.77422404 128 128 128
7.44269323 2.57238793 1.77410495 128 128 128
7.44560623 2.62334299 1.77801204 128 128 128
7.44676495 2.67093301 1.77597106 128 128 128
7.44765377 2.71314096 1.77675295 128 128 128
7.44862795 2.76173401 1.77927005 128 128 128
1.31052995 2.89043689 1.78249002 128 128 128
7.45030880 2.82096505 1.79199898 128 128 128
1.29850805 2.89576197 1.77908695 128 128 128
7.45130777 2.87167192 1.78498495 128 128 128
1.29948497 2.92903090 1.78345394 128 128 128
7.45326900 2.92176795 1.77414405 128 128 128
1.30761099 2.97613096 1.78162205 128 128 128
7.45349216 2.96888709 1.77397096 128 128 128
7.45381689 3.02372789 1.77415204 128 128 128
7.45501709 3.07653904 1.77430296 128 128 128
7.45553684 3.12377405 1.77549803 128 128 128
7.45632219 3.17293596 1.77410197 128 128 128
1.35697305 3.23535490 1.77343702 128 128 128
7.45719814 3.22489905 1.77748501 128 128 128
1.35567296 3.26086092 1.77670300 128 128 128
7.45804119 3.27314401 1.77752602 128 128 128
7.45832920 3.32394695 1.77416503 128 128 128
7.45880604 3.37355590 1.77281404 128 128 128
7.45890999 3.42640901 1.77396202 128 128 128
7.45963001 3.47449708 1.77362299 128 128 128
7.46005487 3.52508712 1.77511096 128 128 128
7.46204281 3.57748795 1.77531803 128 128 128
7.46558285 3.62554502 1.77560902 128 128 128
7.46596384 3.67640495 1.77326596 128 128 128
7.46729279 3.72535300 1.77235794 128 128 128
7.46730280 3.77692199 1.77258801 128 128 128
7.46836901 3.82518291 1.77429402 128 128 128
7.46906805 3.87268400 1.77953506 128 128 128
7.46699381 3.92310095 1.77605999 128 128 128
7.46724987 3.97587490 1.77525198 128 128 128
7.46745300 4.02683306 1.77238202 128 128 128
7.46814919 4.07720995 1.77438402 128 128 128
7.46839190 4.12542391 1.77649701 128 128 128
7.46913099 4.17314005 1.77456403 128 128 128
7.46973324 4.22418213 1.77538800 128 128 128
1.40171599 4.27398920 1.78875399 128 128 128
1.46930504 4.27162886 1.78398395 128 128 128
1.52937305 4.26062298 1.78727996 128 128 128
1.58284998 4.25769091 1.77878201 128 128 128
1.62747395 4.25706720 1.77343905 128 128 128
1.67431104 4.25480080 1.77174199 128 128 128
1.72231400 4.25529099 1.76523805 128 128 128
1.77086103 4.25633621 1.76967502 128 128 128
1.82818103 4.25595808 1.77043605 128 128 128
1.87448204 4.25492287 1.77139795 128 128 128
1.91879499 4.25366116 1.76697302 128 128 128
1.96454203 4.25428820 1.77192605 128 128 128
2.02574897 4.25431919 1.77089202 128 128 128
2.12656093 4.25357580 1.77264404 128 128 128
2.18187594 4.25363302 1.76662600 128 128 128
2.22271800 4.25184202 1.77348602 128 128 128
2.27407503 4.25314522 1.77702606 128 128 128
2.31962299 4.25180197 1.77335298 128 128 128
2.37490296 4.25301409 1.77412796 128 128 128
2.42710209 4.25632095 1.78115106 128 128 128
2.47929096 4.25636005 1.77823997 128 128 128
2.52157903 4.25512314 1.78082395 128 128 128
2.57312107 4.25633383 1.78258598 128 128 128
2.61975598 4.25413609 1.77801502 128 128 128
2.68570709 4.25859022 1.77694702 128 128 128
7.47002602 4.27526188 1.77424800 128 128 128
2.52586102 4.31298113 1.80763400 128 128 128
2.57354808 4.30900383 1.81113899 128 128 128
2.62352610 4.30645418 1.81348896 128 128 128
2.70363402 4.32129383 1.78932595 128 128 128
7.47053003 4.32699203 1.77378094 128 128 128
2.56561708 4.38170004 1.81493294 128 128 128
2.61886311 4.37260008 1.81978595 128 128 128
2.70453310 4.37713623 1.79417205 128 128 128
7.44315481 4.41229820 1.77633297 128 128 128
2.69970489 4.42616892 1.79515898 128 128 128
2.69817591 4.47464991 1.79544401 128 128 128
2.69546390 4.52375889 1.79782903 128 128 128
2.69461107 4.58066893 1.79094601 128 128 128
2.69618011 4.63113689 1.79513001 128 128 128
2.68880510 4.67523289 1.79979002 128 128 128
4.67308617 4.70622301 1.77533901 128 128 128
4.71911716 4.70651817 1.78275704 128 128 128
5.02664423 4.70529795 1.78325903 128 128 128
5.07625294 4.66278791 1.77826500 128 128 128
5.12353277 4.64567089 1.77663398 128 128 128
5.17697191 4.65587902 1.77251196 128 128 128
5.22534895 4.66697693 1.77334201 128 128 128
5.30351591 4.68863297 1.76900494 128 128 128
5.32722187 4.69822979 1.77589095 128 128 128
5.37516308 4.69234991 1.78264797 128 128 128
5.42790222 4.68903494 1.79005694 128 128 128
5.47585487 4.67833424 1.79896104 128 128 128
5.52197790 4.68908882 1.79140699 128 128 128
5.58888721 4.68100786 1.78431499 128 128 128
5.63060808 4.69393492 1.77813196 128 128 128
5.66575480 4.67140388 1.77771997 128 128 128
5.72042179 4.66112804 1.77752697 128 128 128
5.79532003 4.69290209 1.78466797 128 128 128
5.83074903 4.69285393 1.77890003 128 128 128
5.87523794 4.69012880 1.77367795 128 128 128
5.92593622 4.68303919 1.79852498 128 128 128
5.97560596 4.67850685 1.79465604 128 128 128
6.01390696 4.69043398 1.78466403 128 128 128
6.06413078 4.68858385 1.79625106 128 128 128
6.17325115 4.67321491 1.80631196 128 128 128
6.23675919 4.67837906 1.76328194 128 128 128
2.68314600 4.73040819 1.79132998 128 128 128
2.73192501 4.72742605 1.78891897 128 128 128
2.78023791 4.73764277 1.77989304 128 128 128
5.52736998 1.27117395 1.82968903 128 128 128
5.57258987 1.26984000 1.83108497 128 128 128
5.62536621 1.26973295 1.82992494 128 128 128
5.67554188 1.27050400 1.82927299 128 128 128
6.82315207 1.29283702 1.84054196 128 128 128
6.87237883 1.28421199 1.84061801 128 128 128
6.92233992 1.28271997 1.83675396 128 128 128
6.97760010 1.28094697 1.83568501 128 128 128
7.02376413 1.28512704 1.83454895 128 128 128
7.07932806 1.28702295 1.82961094 128 128 128
7.12506104 1.28820503 1.82746899 128 128 128
7.18046188 1.28894806 1.82893705 128 128 128
7.23412800 1.28729296 1.83472300 128 128 128
7.27513885 1.28758299 1.83868802 128 128 128
2.96443701 1.31411898 1.82256603 128 128 128
3.02511811 1.31352794 1.82129502 128 128 128
3.07677603 1.30857098 1.82851195 128 128 128
3.12773395 1.31415200 1.82953203 128 128 128
3.16647291 1.32859397 1.82159495 128 128 128
5.68306780 1.30435598 1.84083903 128 128 128
6.22732782 1.33597004 1.84004402 128 128 128
6.27798796 1.33892405 1.83751094 128 128 128
6.32346678 1.33800304 1.83685601 128 128 128
6.37190485 1.33463800 1.83794796 128 128 128
6.42182922 1.33466303 1.84316802 128 128 128
6.47234678 1.33846402 1.84350204 128 128 128
6.52947903 1.33615506 1.84454703 128 128 128
6.58035421 1.33860898 1.84263098 128 128 128
6.62725115 1.33368397 1.84370995 128 128 128
6.67505789 1.33511698 1.84353805 128 128 128
6.72404480 1.33483696 1.84168601 128 128 128
6.77027178 1.34067702 1.83205295 128 128 128
6.81743097 1.34478605 1.82732701 128 128 128
7.23146582 1.32133102 1.82979703 128 128 128
7.27505493 1.32092500 1.82961595 128 128 128
7.31608200 1.32419395 1.83096194 128 128 128
7.37031507 1.32494199 1.83166695 128 128 128
7.41792011 1.32113004 1.82568598 128 128 128
6.17104006 1.37453902 1.83550203 128 128 128
6.22547483 1.37765801 1.83127606 128 128 128
6.28013420 1.37659204 1.82778001 128 128 128
6.32204580 1.37178099 1.82602298 128 128 128
6.37066507 1.37914598 1.82614303 128 128 128
7.41974497 1.36978400 1.82848704 128 128 128
6.17206287 1.42504704 1.82969999 128 128 128
6.23082590 1.42285502 1.82568502 128 128 128
6.27018404 1.41597199 1.82314503 128 128 128
6.32554102 1.41379702 1.82068598 128 128 128
6.37977600 1.42057502 1.82258105 128 128 128
7.42198706 1.42584896 1.82628202 128 128 128
6.16197014 1.47601795 1.82657504 128 128 128
6.21672201 1.46974504 1.82304502 128 128 128
6.26997089 1.46707404 1.82163894 128 128 128
6.32482290 1.47391498 1.82069194 128 128 128
6.38110399 1.45731699 1.82213104 128 128 128
7.42595482 1.47781301 1.82962501 128 128 128
6.12297297 1.50914705 1.82942700 128 128 128
6.17688513 1.51259005 1.82502103 128 128 128
6.22557592 1.52288401 1.82312799 128 128 128
6.27389622 1.52535796 1.82317698 128 128 128
6.31559610 1.53017902 1.82585096 128 128 128
6.37200785 1.52269399 1.82701504 128 128 128
7.42670107 1.52592504 1.83159804 128 128 128
6.06915617 1.56086600 1.83328605 128 128 128
6.12380981 1.56462896 1.83407295 128 128 128
6.17786789 1.56037104 1.82268095 128 128 128
6.22695303 1.56614304 1.82500505 128 128 128
6.27424812 1.56638098 1.82516599 128 128 128
6.32059479 1.57151794 1.83120894 128 128 128
6.36801100 1.57560003 1.83001804 128 128 128
7.42568302 1.57473505 1.83212698 128 128 128
6.01480484 1.62343597 1.83572400 128 128 128
6.06620789 1.61887705 1.83706403 128 128 128
6.12947989 1.61688399 1.83337605 128 128 128
6.17756796 1.61784506 1.83398902 128 128 128
6.22795200 1.61427295 1.83292997 128 128 128
6.27648020 1.61539805 1.83072603 128 128 128
6.32290602 1.61658800 1.83508396 128 128 128
6.37187099 1.61577404 1.83527005 128 128 128
7.42780590 1.62779701 1.83458900 128 128 128
6.32402706 1.65658295 1.83424199 128 128 128
7.42731524 1.67777896 1.83715105 128 128 128
5.97215414 1.72088802 1.83040905 128 128 128
7.42733717 1.72293794 1.83450305 128 128 128
5.75392914 1.78553200 1.81508505 128 128 128
6.32933617 1.78426898 1.85319102 128 128 128
6.37425518 1.79260397 1.85088003 128 128 128
7.43120813 1.77155805 1.83257794 128 128 128
2.17077208 1.82695901 1.82016301 128 128 128
2.21994710 1.82380497 1.81873095 128 128 128
2.27494192 1.82606494 1.82022595 128 128 128
2.32297993 1.83175099 1.81681299 128 128 128
2.36822391 1.82816195 1.82746696 128 128 128
2.42651892 1.83656204 1.82291996 128 128 128
2.49164510 1.84432006 1.82326400 128 128 128
2.53951406 1.83941305 1.82438004 128 128 128
2.57801890 1.84159100 1.82760501 128 128 128
2.62164998 1.83793199 1.82572806 128 128 128
2.67624688 1.84071004 1.82369006 128 128 128
2.72322607 1.84048998 1.82852995 128 128 128
2.77367902 1.84098804 1.82407904 128 128 128
2.82408905 1.84064806 1.82526803 128 128 128
2.87968802 1.83915997 1.82165396 128 128 128
2.92576504 1.82930899 1.82418203 128 128 128
5.75967407 1.82898498 1.81876004 128 128 128
6.37424517 1.82291603 1.84733999 128 128 128
7.43413591 1.82115698 1.83346701 128 128 128
2.05612993 1.87490797 1.82239699 128 128 128
2.07929707 1.86486900 1.82258701 128 128 128
2.12357211 1.85489905 1.82119405 128 128 128
2.17356896 1.85179102 1.82428205 128 128 128
5.75751781 1.87103105 1.82717299 128 128 128
5.93006420 1.85776401 1.84567106 128 128 128
6.07929802 1.86761403 1.84556401 128 128 128
6.22121477 1.86280704 1.84771299 128 128 128
6.27466822 1.86403406 1.85204697 128 128 128
6.32711601 1.87101400 1.85014498 128 128 128
6.37690401 1.86347198 1.85128903 128 128 128
7.43369818 1.87338305 1.83787501 128 128 128
1.98666894 1.96427500 1.82544601 128 128 128
2.04024291 1.93066204 1.82832396 128 128 128
5.76382303 1.92938197 1.83266699 128 128 128
7.43307686 1.93085802 1.82791698 128 128 128
5.77289295 1.98270404 1.82498002 128 128 128
5.92433596 1.98378301 1.81254196 128 128 128
5.97619915 1.98253095 1.81189704 128 128 128
6.02541113 1.98108804 1.81326997 128 128 128
6.07743883 1.98492503 1.81403005 128 128 128
6.12674999 1.98359704 1.81456101 128 128 128
6.16465712 1.98586297 1.81834996 128 128 128
7.43355083 1.98283398 1.82835901 128 128 128
1.35734403 1.99830997 1.82573903 128 128 128
5.77438402 2.02459788 1.82186306 128 128 128
7.43250513 2.02243304 1.82918000 128 128 128
5.78375912 2.06345797 1.81964695 128 128 128
7.43472195 2.06822395 1.82759404 128 128 128
7.43864012 2.12103391 1.82580602 128 128 128
1.30081201 2.16521597 1.82514095 128 128 128
7.44119406 2.17321706 1.82525694 128 128 128
1.29574299 2.22657704 1.82374096 128 128 128
7.44176579 2.22617292 1.82555306 128 128 128
1.29680800 2.25003600 1.82542706 128 128 128
7.44271183 2.27477098 1.82485902 128 128 128
1.30691195 2.26533008 1.82251096 128 128 128
7.44332790 2.32337809 1.82276499 128 128 128
7.44351292 2.37695408 1.82368004 128 128 128
7.44519997 2.42564607 1.82630098 128 128 128
7.44404888 2.47742009 1.82660699 128 128 128
7.44199705 2.52780890 1.82578599 128 128 128
7.44120598 2.57045507 1.82342803 128 128 128
7.44612598 2.62110090 1.82936704 128 128 128
7.44736910 2.67124701 1.82449806 128 128 128
7.44769812 2.71804905 1.82408404 128 128 128
7.44839811 2.78022909 1.83252394 128 128 128
1.30478299 2.88517809 1.82657397 128 128 128
7.44897890 2.82519007 1.83566296 128 128 128
1.30052996 2.89457011 1.83210695 128 128 128
7.44985390 2.85206890 1.83051503 128 128 128
1.30190396 2.92815304 1.83059895 128 128 128
7.44761992 2.91378903 1.82649505 128 128 128
1.30563903 2.97211599 1.83061898 128 128 128
7.45197821 2.97615004 1.82557905 128 128 128
7.45280981 3.02520704 1.82441103 128 128 128
7.45356417 3.07491803 1.82378304 128 128 128
7.45427418 3.12263489 1.82490897 128 128 128
7.45551109 3.17472100 1.82644701 128 128 128
1.35657299 3.23412490 1.82516205 128 128 128
7.45644522 3.22503495 1.82630098 128 128 128
1.35582197 3.25949311 1.82439899 128 128 128
7.45710802 3.27250409 1.82569897 128 128 128
7.45818996 3.32429790 1.82478404 128 128 128
7.45834398 3.37427711 1.82270598 128 128 128
7.45917988 3.42478108 1.82438302 128 128 128
7.45943308 3.47468805 1.82393098 128 128 128
7.46270704 3.52729702 1.82712805 128 128 128
7.46266985 3.57482600 1.82266402 128 128 128
7.46155596 3.62575507 1.82347298 128 128 128
7.46275282 3.67813993 1.82263601 128 128 128
7.46409702 3.72742391 1.82527006 128 128 128
7.46398115 3.77476907 1.82573700 128 128 128
7.46470308 3.82129312 1.82397103 128 128 128
7.46780014 3.87448597 1.82413006 128 128 128
7.46808386 3.92367911 1.82240903 128 128 128
7.46924686 3.97303391 1.82607198 128 128 128
7.46743822 4.02712584 1.82168400 128 128 128
7.46754408 4.07836485 1.82410896 128 128 128
7.46892786 4.12440109 1.82686198 128 128 128
7.46950912 4.17314911 1.82543302 128 128 128
7.46944904 4.22534084 1.82508397 128 128 128
1.41248906 4.28634596 1.82122898 128 128 128
1.47753406 4.28388309 1.82392299 128 128 128
1.52464497 4.26686096 1.82587302 128 128 128
1.56906199 4.26047516 1.82399905 128 128 128
1.62042296 4.25952721 1.81842995 128 128 128
1.67478096 4.25427198 1.81921005 128 128 128
1.72595501 4.25303793 1.81589401 128 128 128
1.77622902 4.25572920 1.82479298 128 128 128
1.82449198 4.25534201 1.82169700 128 128 128
1.87152898 4.25832987 1.82356203 128 128 128
1.92411399 4.25412798 1.82169795 128 128 128
1.97408605 4.25594378 1.82557499 128 128 128
2.02329707 4.25904989 1.82748699 128 128 128
2.12513709 4.26047087 1.82792902 128 128 128
2.17418790 4.25547886 1.82348800 128 128 128
2.22777510 4.25868702 1.82263601 128 128 128
2.27498698 4.25034380 1.82566202 128 128 128
2.32360911 4.25771809 1.82486701 128 128 128
2.37725711 4.26752901 1.82558298 128 128 128
2.43202305 4.26908302 1.82607198 128 128 128
2.47487903 4.26788092 1.82531798 128 128 128
2.52672100 4.26547909 1.82596600 128 128 128
7.46983385 4.27727890 1.82272696 128 128 128
1.41451800 4.33374310 1.82278395 128 128 128
1.46854401 4.32718277 1.82312095 128 128 128
1.51763105 4.31709003 1.82686102 128 128 128
1.57476401 4.31889296 1.82964301 128 128 128
1.63028705 4.32368279 1.82837105 128 128 128
1.67209804 4.31838989 1.82542396 128 128 128
1.72328103 4.32224703 1.82580304 128 128 128
1.77307999 4.32066584 1.82466304 128 128 128
1.82515800 4.31624699 1.82669699 128 128 128
1.87413299 4.31328297 1.82758701 128 128 128
1.92095006 4.31805086 1.82714999 128 128 128
1.98183501 4.31777477 1.82923698 128 128 128
2.02511597 4.31717920 1.83049595 128 128 128
2.11952090 4.32278013 1.83171904 128 128 128
2.16910601 4.33157110 1.82972002 128 128 128
2.22153902 4.33552885 1.83010995 128 128 128
2.27576089 4.32827902 1.83063996 128 128 128
2.33940101 4.33541679 1.82714403 128 128 128
2.38375711 4.33653688 1.82559896 128 128 128
2.42502809 4.33572292 1.82543695 128 128 128
2.47641397 4.33464193 1.82477701 128 128 128
2.52761006 4.32858896 1.82510996 128 128 128
2.57482004 4.33077002 1.82582295 128 128 128
7.47025824 4.32779884 1.82308102 128 128 128
1.37835300 4.37322092 1.82064199 128 128 128
1.41426694 4.38164186 1.82009304 128 128 128
1.46251297 4.38255596 1.81935203 128 128 128
1.51883101 4.37842512 1.82334197 128 128 128
1.57079995 4.36923695 1.82504797 128 128 128
1.62136495 4.35714579 1.82268202 128 128 128
1.67566502 4.35629702 1.82164204 128 128 128
1.72826600 4.36739206 1.81685305 128 128 128
1.77134395 4.35820913 1.82032204 128 128 128
1.81663501 4.36494684 1.81652403 128 128 128
1.87286901 4.35132122 1.81981802 128 128 128
1.93077600 4.35162020 1.81836700 128 128 128
1.96913505 4.36553001 1.82080603 128 128 128
2.02416992 4.36480618 1.82512605 128 128 128
2.12662292 4.37319994 1.82297599 128 128 128
2.18544006 4.37896204 1.82106400 128 128 128
2.22749901 4.37332392 1.82126701 128 128 128
2.27820492 4.37794399 1.81973302 128 128 128
2.33122301 4.37751102 1.82008302 128 128 128
2.37988710 4.37417603 1.81936204 128 128 128
2.42990804 4.37761116 1.81790197 128 128 128
2.47384596 4.37163019 1.81741905 128 128 128
2.52368093 4.37579012 1.81684506 128 128 128
2.56997895 4.37371302 1.81801796 128 128 128
2.61660695 4.37093401 1.82324803 128 128 128
2.68129802 4.37655497 1.82780802 128 128 128
7.44132614 4.41580105 1.82461500 128 128 128
1.38138294 4.42131615 1.82222700 128 128 128
1.42645895 4.42229605 1.81625605 128 128 128
1.46888995 4.43434000 1.81672299 128 128 128
1.50950503 4.43280506 1.81716800 128 128 128
1.55746400 4.42749882 1.81468499 128 128 128
1.61495602 4.43157101 1.81841397 128 128 128
1.68088698 4.42688417 1.80559897 128 128 128
1.72424901 4.41606379 1.81647897 128 128 128
1.77382600 4.42479992 1.81280398 128 128 128
1.82216203 4.44077587 1.81476402 128 128 128
1.86403704 4.45547295 1.81534803 128 128 128
1.92862201 4.45163202 1.81496000 128 128 128
1.98466003 4.44486713 1.81642401 128 128 128
2.02635503 4.44282389 1.81676900 128 128 128
2.13119602 4.43180799 1.81398404 128 128 128
2.17068505 4.42440081 1.81156802 128 128 128
2.22436309 4.41670704 1.81351995 128 128 128
2.27953196 4.42571497 1.81355000 128 128 128
2.32642102 4.42626905 1.81324697 128 128 128
2.37850809 4.42051792 1.81374800 128 128 128
2.42212701 4.41202402 1.81293499 128 128 128
2.47531199 4.41473722 1.81009996 128 128 128
2.52811193 4.42298412 1.81013298 128 128 128
2.56698704 4.42313004 1.81345999 128 128 128
2.61880994 4.42714214 1.82018101 128 128 128
2.68256497 4.42768812 1.82769299 128 128 128
1.37999105 4.47405386 1.82256401 128 128 128
1.42722404 4.46957588 1.81352603 128 128 128
1.47450495 4.47570181 1.81156695 128 128 128
1.51308703 4.48376608 1.81226802 128 128 128
1.56573606 4.48782396 1.81207395 128 128 128
1.62485802 4.49346924 1.81237602 128 128 128
1.66883898 4.49009895 1.80838394 128 128 128
1.72791600 4.47638321 1.80850697 128 128 128
1.78347301 4.49761677 1.80998802 128 128 128
1.83197701 4.48492718 1.81092596 128 128 128
1.88000703 4.49100399 1.81358302 128 128 128
1.93003297 4.47993898 1.81308305 128 128 128
1.97035003 4.47482300 1.81226301 128 128 128
2.02250195 4.47401524 1.81004095 128 128 128
2.11733294 4.47199011 1.80710399 128 128 128
2.17217588 4.47652006 1.80763102 128 128 128
2.23135090 4.47789717 1.80676198 128 128 128
2.27941203 4.47885990 1.80647898 128 128 128
2.32265592 4.47606087 1.81093395 128 128 128
2.36409497 4.48091793 1.80928802 128 128 128
2.42242908 4.46395779 1.80621803 128 128 128
2.48674893 4.47411823 1.80593002 128 128 128
2.52847791 4.46536589 1.80756199 128 128 128
2.57162094 4.47287416 1.81218004 128 128 128
2.62039900 4.48209286 1.81851006 128 128 128
2.67726994 4.48087883 1.82544506 128 128 128
1.38259697 4.52221680 1.82224798 128 128 128
1.42996800 4.52519178 1.81519306 128 128 128
1.47768903 4.52526903 1.81354105 128 128 128
1.52019405 4.52894402 1.81073594 128 128 128
1.56945002 4.53660202 1.80910099 128 128 128
1.62256396 4.53441477 1.80854797 128 128 128
1.66971898 4.54086399 1.80843699 128 128 128
1.72985005 4.54225779 1.80676794 128 128 128
1.77794600 4.53870296 1.80857205 128 128 128
1.82237005 4.53593111 1.81093395 128 128 128
1.86885905 4.54246092 1.81334901 128 128 128
1.91214800 4.53058481 1.80936003 128 128 128
1.97693801 4.53270102 1.80851901 128 128 128
2.02862692 4.53255081 1.80632102 128 128 128
2.13070297 4.52741003 1.80414999 128 128 128
2.17885089 4.53523684 1.80307901 128 128 128
2.22601104 4.52656317 1.80249906 128 128 128
2.27817702 4.52296400 1.80443597 128 128 128
2.32706594 4.52512503 1.80381095 128 128 128
2.36940002 4.52727699 1.80356896 128 128 128
2.41685891 4.53177691 1.80367804 128 128 128
2.47249603 4.52970886 1.80386400 128 128 128
2.52479911 4.52199888 1.80763996 128 128 128
2.58390188 4.52370977 1.81184900 128 128 128
2.62994409 4.52372885 1.81916296 128 128 128
2.67318106 4.52553892 1.82305896 128 128 128
1.38643801 4.57308817 1.82481897 128 128 128
1.43210196 4.57484102 1.81865704 128 128 128
1.47805595 4.57526493 1.81551003 128 128 128
1.52221298 4.57560396 1.81358099 128 128 128
1.57318902 4.57726288 1.80962706 128 128 128
1.62615204 4.57508898 1.80944896 128 128 128
1.67450702 4.58142996 1.81183398 128 128 128
1.72098100 4.58520317 1.81134403 128 128 128
1.77765799 4.58587217 1.81372905 128 128 128
1.82861698 4.58676386 1.81406605 128 128 128
1.86966503 4.58482122 1.81236601 128 128 128
1.92144096 4.59111214 1.81250000 128 128 128
1.97405803 4.58757782 1.80979896 128 128 128
2.02110410 4.58140278 1.80611300 128 128 128
2.12486601 4.58281517 1.80382097 128 128 128
2.17166495 4.57146311 1.80434203 128 128 128
2.22153497 4.57844782 1.80471897 128 128 128
2.27807212 4.57814121 1.80372906 128 128 128
2.32844210 4.57699394 1.80390704 128 128 128
2.37526011 4.57802820 1.80477202 128 128 128
2.42613697 4.58398581 1.80678701 128 128 128
2.47452497 4.58595324 1.80885899 128 128 128
2.52210307 4.58639288 1.80901599 128 128 128
2.57735896 4.57674980 1.81338203 128 128 128
2.62310100 4.57483721 1.81612206 128 128 128
2.67777109 4.56946993 1.82257104 128 128 128
1.38645399 4.62428188 1.82120395 128 128 128
1.43311501 4.62093401 1.81681204 128 128 128
1.47984302 4.62371588 1.81886494 128 128 128
1.52125895 4.62647295 1.81726599 128 128 128
1.56985903 4.62806702 1.81591201 128 128 128
1.62539005 4.62614489 1.81734598 128 128 128
1.67839205 4.62559795 1.81672394 128 128 128
1.72952795 4.63052416 1.81729102 128 128 128
1.77755296 4.62828016 1.81706297 128 128 128
1.82370198 4.62646580 1.81625998 128 128 128
1.87475598 4.62753677 1.81584096 128 128 128
1.92305195 4.63224602 1.81628394 128 128 128
1.96811903 4.62667179 1.81702900 128 128 128
2.02194691 4.63142300 1.81467402 128 128 128
2.12131310 4.63630915 1.81141305 128 128 128
2.17263603 4.63238192 1.81039798 128 128 128
2.23115206 4.63533211 1.80945396 128 128 128
2.27891207 4.63238716 1.80830002 128 128 128
2.32585001 4.63360977 1.81093800 128 128 128
2.37608910 4.63199806 1.81109297 128 128 128
2.42535901 4.63239002 1.81169999 128 128 128
2.47420192 4.63123083 1.81094801 128 128 128
2.52045608 4.63504410 1.81203198 128 128 128
2.57462096 4.63308001 1.81296897 128 128 128
2.62179708 4.63329601 1.81709003 128 128 128
2.66992497 4.63330793 1.81921399 128 128 128
1.38469899 4.67398500 1.82120097 128 128 128
1.43006206 4.67134809 1.81737196 128 128 128
1.48494196 4.66675091 1.82031095 128 128 128
1.52626204 4.66965580 1.82037699 128 128 128
1.57189500 4.66988277 1.82194602 128 128 128
1.62221301 4.67329502 1.82257402 128 128 128
1.67708600 4.67038393 1.82167995 128 128 128
1.72420895 4.67185020 1.81460500 128 128 128
1.77488697 4.66712999 1.81724703 128 128 128
1.82765102 4.66837597 1.81834400 128 128 128
1.87741601 4.67021084 1.81611300 128 128 128
1.92516398 4.67021513 1.81774294 128 128 128
1.97329903 4.67348623 1.81831706 128 128 128
2.02237296 4.67933702 1.81754601 128 128 128
2.12523699 4.68071318 1.81589794 128 128 128
2.17288899 4.68575811 1.81674695 128 128 128
2.22451305 4.68343401 1.81453001 128 128 128
2.27824593 4.68032503 1.81570303 128 128 128
2.32826400 4.67631006 1.81620800 128 128 128
2.37378407 4.67848301 1.81813002 128 128 128
2.42610312 4.67561579 1.81807303 128 128 128
2.47531509 4.67634296 1.81728101 128 128 128
2.52220106 4.68050098 1.81680501 128 128 128
2.57337904 4.68111181 1.81674194 128 128 128
2.62347293 4.68109894 1.81916595 128 128 128
2.66678309 4.67818308 1.81964099 128 128 128
4.68057013 4.70245600 1.81833303 128 128 128
4.72307491 4.70272303 1.82068801 128 128 128
4.77195597 4.70551586 1.82455003 128 128 128
4.82535410 4.70862722 1.83053803 128 128 128
4.87169790 4.70566511 1.83217001 128 128 128
4.91891193 4.68729591 1.82981896 128 128 128
5.03520584 4.67750883 1.82905805 128 128 128
5.07254887 4.66744995 1.82953000 128 128 128
5.12267685 4.66007900 1.82673299 128 128 128
5.17800522 4.66536283 1.82402098 128 128 128
5.22169685 4.66594505 1.82927799 128 128 128
5.27248907 4.66931200 1.82697296 128 128 128
5.33773899 4.69699383 1.83249700 128 128 128
5.37769604 4.68407679 1.83098400 128 128 128
5.42218781 4.68370485 1.83014297 128 128 128
5.47017717 4.68051100 1.82953894 128 128 128
5.52023792 4.68137312 1.83642697 128 128 128
5.57483816 4.67720890 1.83679700 128 128 128
5.62587500 4.66010523 1.82612503 128 128 128
5.67313910 4.65792894 1.82595694 128 128 128
5.72443295 4.65325689 1.82989895 128 128 128
5.77875519 4.65342093 1.83021903 128 128 128
5.82715702 4.68987417 1.82729399 128 128 128
5.88591003 4.69103718 1.82382905 128 128 128
5.93566704 4.68518305 1.82576394 128 128 128
5.97069407 4.68228197 1.82571304 128 128 128
6.01541805 4.68406105 1.82264900 128 128 128
6.05609512 4.69066381 1.82731605 128 128 128
6.11632490 4.68367910 1.83244097 128 128 128
6.15623713 4.68682194 1.83655500 128 128 128
6.22112417 4.65261889 1.83152199 128 128 128
6.28088284 4.66239977 1.83089399 128 128 128
6.32274580 4.67582798 1.82773495 128 128 128
7.27093697 4.68654203 1.82570601 128 128 128
1.38470900 4.72059107 1.82593703 128 128 128
1.42345500 4.72613287 1.81591904 128 128 128
1.47849798 4.71269894 1.82522404 128 128 128
1.52385104 4.70924091 1.82487595 128 128 128
1.57402802 4.71097422 1.82635701 128 128 128
1.62492096 4.71116304 1.82453704 128 128 128
1.67669904 4.71214485 1.82527900 128 128 128
1.72376001 4.71293688 1.82250798 128 128 128
1.77487302 4.71472406 1.81831098 128 128 128
1.82655394 4.71080399 1.82200801 128 128 128
1.87881994 4.70979977 1.82211900 128 128 128
1.92925000 4.70927286 1.82091904 128 128 128
1.97754300 4.71494484 1.82077706 128 128 128
2.02585793 4.71572018 1.82183099 128 128 128
2.12766695 4.71386480 1.82337999 128 128 128
2.17750692 4.71509600 1.82307696 128 128 128
2.22587395 4.71589422 1.82227600 128 128 128
2.27291894 4.71585321 1.82209802 128 128 128
2.32358003 4.71219015 1.82264602 128 128 128
2.37371492 4.71316385 1.82295799 128 128 128
2.42316198 4.71250916 1.82345998 128 128 128
2.47760010 4.71032619 1.82273495 128 128 128
2.52450490 4.71177912 1.82232404 128 128 128
2.57395601 4.71610403 1.82336497 128 128 128
2.62253690 4.71430492 1.82257402 128 128 128
2.67578912 4.71855307 1.82125902 128 128 128
2.72440004 4.72114611 1.81923997 128 128 128
2.76227498 4.72969389 1.81338298 128 128 128
5.62553787 1.26944196 1.86893797 128 128 128
5.67751980 1.27795196 1.86974704 128 128 128
5.72010612 1.28616703 1.87260795 128 128 128
5.77015591 1.29109097 1.87937999 128 128 128
5.82553196 1.29191399 1.87812197 128 128 128
5.87496090 1.28847206 1.87790704 128 128 128
5.92758083 1.28680599 1.87692702 128 128 128
5.96719122 1.28666306 1.87688005 128 128 128
6.01798916 1.29463303 1.88353097 128 128 128
6.08542824 1.29591799 1.88462806 128 128 128
6.71774006 1.28448701 1.87482500 128 128 128
6.75409889 1.27452695 1.87134600 128 128 128
6.81989717 1.26615906 1.87042105 128 128 128
6.86758614 1.26312101 1.87109804 128 128 128
6.92426491 1.26763201 1.87548399 128 128 128
6.97788382 1.26803899 1.87975597 128 128 128
7.01773977 1.27167106 1.88759899 128 128 128
7.06476498 1.26947296 1.87989199 128 128 128
7.12691402 1.26318705 1.87679994 128 128 128
7.20028496 1.27710700 1.87702405 128 128 128
7.24265099 1.28157794 1.86625898 128 128 128
7.27887583 1.28149498 1.86891603 128 128 128
7.32266617 1.28072798 1.86783004 128 128 128
2.95867395 1.31241500 1.87386203 128 128 128
3.02865505 1.30787098 1.87364995 128 128 128
3.08992004 1.31973100 1.87327397 128 128 128
3.12349510 1.31102395 1.87738001 128 128 128
3.16527700 1.32970703 1.87571394 128 128 128
5.68486404 1.32715905 1.87412298 128 128 128
5.72421408 1.32783902 1.87105000 128 128 128
5.77491522 1.32733095 1.87500894 128 128 128
6.75277901 1.32141304 1.86534500 128 128 128
6.81813097 1.31963801 1.85742402 128 128 128
7.27451086 1.31550503 1.86396098 128 128 128
7.32446909 1.32099199 1.86181700 128 128 128
7.37792301 1.31983697 1.86638904 128 128 128
7.41888189 1.32950902 1.87276495 128 128 128
5.76115417 1.36196601 1.87610805 128 128 128
6.17527390 1.37056696 1.85216999 128 128 128
7.42021084 1.37161303 1.87557900 128 128 128
5.76215696 1.41982400 1.87120402 128 128 128
6.12434578 1.43023396 1.85014296 128 128 128
7.41844797 1.42691600 1.88025701 128 128 128
5.76784801 1.48300898 1.86377800 128 128 128
5.96104383 1.47163403 1.84423900 128 128 128
6.12154293 1.47293401 1.84536397 128 128 128
6.16573000 1.46871102 1.84189796 128 128 128
7.41735697 1.47900498 1.87422001 128 128 128
5.72531605 1.52679205 1.86357403 128 128 128
5.77329922 1.52860105 1.86329496 128 128 128
5.95746803 1.52792394 1.83943999 128 128 128
6.16024399 1.52239597 1.83964300 128 128 128
7.41662216 1.52621305 1.87603295 128 128 128
5.72349119 1.57346404 1.86431599 128 128 128
5.76665401 1.56451201 1.86578095 128 128 128
5.81796408 1.56262803 1.86153698 128 128 128
5.87041378 1.57627904 1.86137795 128 128 128
7.41632700 1.57551503 1.87486100 128 128 128
5.71360683 1.62643802 1.86829495 128 128 128
5.75809383 1.61565900 1.87065494 128 128 128
5.83401012 1.61352897 1.86169398 128 128 128
5.88517189 1.62641096 1.86532700 128 128 128
5.91637421 1.63500297 1.86020803 128 128 128
6.07597017 1.62589896 1.86110902 128 128 128
7.41525507 1.62902296 1.87723398 128 128 128
5.71778917 1.68211699 1.87096703 128 128 128
5.75030184 1.67841005 1.87063098 128 128 128
5.82792187 1.68008196 1.86673498 128 128 128
5.89009094 1.67850399 1.86651599 128 128 128
5.91666698 1.67843497 1.86612403 128 128 128
5.94400406 1.67970300 1.85856795 128 128 128
7.41916895 1.67573702 1.87465203 128 128 128
5.71798992 1.72464299 1.86993098 128 128 128
5.75329399 1.72274697 1.87153602 128 128 128
5.83692598 1.72226703 1.87146604 128 128 128
5.88525915 1.72238600 1.86855900 128 128 128
5.91395521 1.71707797 1.86598206 128 128 128
5.95439482 1.72875595 1.85792398 128 128 128
6.04434776 1.73272896 1.85412395 128 128 128
7.41975403 1.72308099 1.87591004 128 128 128
5.71935081 1.77258694 1.87099397 128 128 128
5.75077009 1.77663600 1.86847603 128 128 128
5.83422899 1.77227199 1.87018704 128 128 128
5.88310480 1.76139498 1.86645103 128 128 128
5.91655302 1.76633406 1.86618197 128 128 128
5.95685005 1.77610600 1.85579395 128 128 128
7.42343092 1.77479303 1.87699103 128 128 128
2.16995311 1.82874000 1.87478304 128 128 128
2.21825504 1.82839096 1.88149500 128 128 128
2.27188396 1.83359599 1.88017404 128 128 128
2.32609892 1.83479798 1.88138604 128 128 128
2.37313008 1.83492005 1.88213396 128 128 128
2.42526889 1.83829606 1.88710201 128 128 128
2.48402095 1.84246302 1.87602401 128 128 128
2.54032397 1.84252095 1.87882900 128 128 128
2.58235002 1.83957803 1.87278998 128 128 128
2.62279701 1.84105206 1.87699103 128 128 128
2.67361593 1.83900201 1.87826204 128 128 128
2.72585201 1.84033298 1.87650895 128 128 128
2.77580810 1.84056699 1.87727499 128 128 128
2.82293391 1.84121597 1.87639105 128 128 128
2.87566805 1.84005797 1.87656200 128 128 128
2.92806292 1.82880402 1.87575901 128 128 128
7.42520809 1.82449698 1.87862396 128 128 128
2.05617189 1.87851000 1.87334895 128 128 128
2.07874799 1.85997498 1.87501097 128 128 128
2.12416601 1.85480201 1.87614501 128 128 128
2.17415810 1.85158598 1.87542295 128 128 128
7.42667484 1.86995101 1.87974095 128 128 128
1.99707603 1.95855498 1.87580895 128 128 128
2.03913212 1.93375194 1.87667596 128 128 128
7.43027592 1.92336702 1.87726104 128 128 128
7.43176985 1.98034596 1.87558997 128 128 128
1.36016798 2.00030088 1.87421703 128 128 128
7.43109512 2.02036405 1.87272203 128 128 128
7.43485880 2.06787205 1.87269998 128 128 128
7.43968201 2.12346506 1.87469399 128 128 128
1.30348504 2.16680694 1.87668002 128 128 128
7.44083023 2.17298794 1.87497604 128 128 128
1.29509306 2.22142601 1.87472498 128 128 128
7.44171286 2.22640491 1.87491500 128 128 128
1.29623401 2.24843788 1.86831403 128 128 128
7.44241714 2.27364707 1.87494600 128 128 128
1.30985999 2.26289201 1.86907601 128 128 128
7.44321394 2.32237506 1.87538004 128 128 128
7.44388294 2.37730408 1.87378395 128 128 128
7.44447422 2.42497706 1.87183297 128 128 128
7.44381285 2.47760391 1.87806702 128 128 128
7.44165993 2.52789688 1.87528598 128 128 128
7.44175720 2.57178998 1.87441099 128 128 128
7.44628811 2.62119889 1.87633204 128 128 128
7.44744587 2.66870999 1.87568998 128 128 128
7.44801807 2.72465205 1.87550795 128 128 128
7.44791889 2.77654409 1.88043404 128 128 128
1.31293595 2.88126206 1.88082397 128 128 128
7.44843578 2.81778407 1.87309098 128 128 128
1.30364001 2.89544892 1.88212204 128 128 128
7.44962692 2.86264300 1.87912595 128 128 128
1.30349803 2.92803907 1.88123405 128 128 128
